-0.00777119 -0.00543930 -0.01333860
-0.01180894 -0.00579781 -0.00911593
-0.01153443 -0.00923933 -0.00619293
-0.00781593 -0.01137661 -0.00867177
-0.00913747 -0.00372573 -0.01284820
-0.01169536 -0.00405802 -0.01096340
-0.01000407 -0.00888084 -0.00793983
-0.01067852 -0.00258870 -0.01272190
-0.01053610 -0.00691392 -0.00997690
-0.00861107 -0.00233756 -0.01396130
-0.00732232 -0.00751850 -0.01177780
-0.01313090 -0.00205173 -0.01003920
-0.00593565 -0.00674353 -0.01338250
-0.00483252 -0.00321341 -0.01501240
-0.01321735 -0.00327340 -0.00882936
-0.00612939 -0.00944461 -0.01149360
-0.01350354 -0.00482948 -0.00831810
-0.00669125 -0.00180036 -0.01537010
-0.01218497 -0.00696805 -0.00730805
-0.00916657 -0.01040827 -0.00826761
-0.01234831 -0.00102920 -0.01153570
-0.00484769 -0.00826825 -0.01281260
-0.00875140 -0.00722246 -0.01033270
-0.00839061 -0.00914585 -0.00997122
-0.00698776 -0.01013078 -0.01003560
-0.00705903 -0.00362616 -0.01441650
-0.00964687 -0.00532500 -0.01159310
-0.01377586 -0.00573724 -0.00678547
0.00754279 0.01448898 -0.00960639
0.00637625 0.01404798 -0.01076740
0.00543885 0.01428671 -0.01210820
0.00305287 -0.00507039 -0.01601400
0.00097612 -0.00591957 -0.01578220
0.00858963 -0.00181984 -0.01538450
-0.00040300 -0.00724190 -0.01490070
-0.00198506 -0.00630342 -0.01515620
0.00906784 -0.00594253 -0.01322900
0.00115927 -0.00394893 -0.01592030
-0.00441604 -0.00604855 -0.01428960
0.00040303 -0.00098050 -0.01666780
0.00206646 -0.00048861 -0.01725860
0.00223400 -0.00738354 -0.01498090
-0.00268424 -0.00418318 -0.01523840
-0.00226269 -0.00872381 -0.01415080
0.00728719 -0.00649058 -0.01420330
0.00766981 -0.00359102 -0.01532150
0.00948552 -0.00351878 -0.01391330
-0.00063172 -0.00350987 -0.01557690
0.00407244 -0.00071004 -0.01713810
0.00065828 -0.00858501 -0.01496260
0.00572610 -0.00774706 -0.01447430
0.00825339 -0.00486955 -0.01437950
0.00245071 -0.00278411 -0.01650190
-0.00365127 -0.00770076 -0.01416160
0.00546861 -0.00439492 -0.01590630
-0.00352078 -0.00223360 -0.01621630
0.00476189 -0.00244664 -0.01654780
0.00395124 -0.00712111 -0.01530100
0.00735065 0.00816359 -0.01650940
0.01031534 -0.00048433 -0.01448640
0.00509974 0.00737587 -0.01736210
0.00075263 0.00811571 -0.01755130
0.00680551 0.00973067 -0.01632610
0.00796451 0.00130447 -0.01663690
0.00629580 0.00400263 -0.01760430
0.00974949 0.00250246 -0.01547490
0.01099251 0.00344488 -0.01443420
0.00975146 0.00519312 -0.01556330
0.00832398 0.00368897 -0.01659700
0.00910809 0.00039020 -0.01570260
0.00147316 0.00286960 -0.01778100
0.00758516 0.00555051 -0.01698360
0.00315632 0.00225629 -0.01765430
0.00876848 0.00852117 -0.01550940
0.00151859 0.01084654 -0.01644670
0.00791399 0.01020241 -0.01507110
0.00967947 0.00931014 -0.01385500
0.00130564 0.00111408 -0.01750220
0.00571284 0.00182203 -0.01750470
0.00311838 0.00672939 -0.01780720
0.00466244 0.01009478 -0.01619060
0.00332671 0.00472297 -0.01795190
-0.00207133 -0.00092457 -0.01680610
0.00022928 0.01251391 -0.01540250
0.00140887 0.00578905 -0.01819500
0.00854331 0.00678091 -0.01588430
0.01136133 0.00168711 -0.01366920
0.00213901 0.01296477 -0.01466210
0.00297758 0.00900219 -0.01742830
0.00014086 0.00402838 -0.01818050
0.00688813 -0.00135501 -0.01645060
0.01032252 0.00757213 -0.01476990
0.00777655 0.01195152 -0.01399590
0.00402552 0.01209605 -0.01538340
0.00622061 0.01112422 -0.01541680
0.00762706 0.01328555 -0.01251920
0.00578653 0.01225289 -0.01419480
0.00399015 0.01337300 -0.01342570
0.00211612 0.01445768 -0.01220330
0.00376934 0.01435688 -0.01186960
0.00034889 0.01357424 -0.01362970
-0.01462588 -0.00026062 -0.00872533
0.01394224 0.00894879 -0.00754590
0.01473195 0.00819459 0.00647537
0.01260944 -0.00075979 -0.01258430
0.01439482 -0.00537767 -0.00409309
0.01523025 0.00454451 -0.00809541
0.01619989 0.00355539 -0.00712320
0.01486547 0.00374134 -0.00998228
0.00887308 -0.00512432 0.01354750
0.01325765 -0.00738995 -0.00604110
0.01409101 -0.00593759 -0.00581248
0.01547793 0.00689557 0.00546409
0.01293325 0.00939585 -0.00288691
0.01462751 0.00860799 -0.00230613
0.01416930 0.00961224 -0.00058197
0.01487872 0.00750940 -0.00612742
0.01453294 0.00627447 -0.00810591
0.01483064 0.00786864 -0.00433666
0.01344737 -0.00213598 -0.01096650
0.01442103 -0.00529835 -0.00224111
0.01044539 -0.00493384 -0.01243680
0.01499066 0.00783817 -0.00087149
0.01235451 0.00641179 0.01285480
0.01573645 0.00094813 -0.00731462
0.00957869 0.01169941 -0.01234400
0.01598152 0.00085061 -0.00065171
0.01641614 0.00156362 0.00455943
0.01581069 -0.00080024 -0.00033896
0.01593078 -0.00044650 0.00129345
0.01605247 0.00052185 -0.00228327
0.01672739 0.00102880 0.00158984
0.01637400 0.00380741 0.00531975
0.01043365 -0.00208356 -0.01365490
0.01417327 0.00116180 -0.01091210
0.01235583 -0.00888648 -0.00477181
0.01175091 -0.00891269 -0.00643817
0.01330936 0.00513084 0.01176720
0.01196770 -0.00799751 -0.00851197
0.01642132 0.00389566 -0.00216824
0.01321688 0.00660410 0.01049860
0.01239249 -0.00438055 -0.01087170
0.01199829 0.00797575 0.01229210
0.01601446 0.00613997 0.00002599
0.01632852 0.00521746 -0.00336340
0.01336850 -0.00710286 -0.00432617
0.01131086 -0.00285635 0.01330510
0.01576083 0.00528697 0.00694871
0.01156646 -0.00655786 -0.01039170
0.01491320 0.00492205 0.00892946
0.01366289 0.00246008 0.01113440
0.01501125 -0.00402575 0.00299039
0.01143317 -0.00990546 -0.00234704
0.01534868 -0.00252112 -0.00699377
0.01532743 0.00333114 0.00806905
0.01271028 -0.00791460 -0.00294806
0.00936705 0.01280558 -0.01009500
0.01421656 0.00418030 0.01039880
0.00992658 -0.00902052 0.01026960
0.01420577 0.00609095 -0.01011910
0.01342665 -0.00290138 0.01046520
0.01225096 -0.00579504 0.00956327
0.01356355 0.00038863 0.01102720
0.01077321 0.01179535 -0.00078394
0.01004641 -0.00122123 0.01469960
0.01559450 0.00603895 -0.00466281
0.01659281 0.00336962 0.00301621
0.01541195 0.00552438 -0.00651012
0.01173191 0.00649342 -0.01343720
0.01103743 0.00920403 -0.01245310
0.01517334 0.00148622 -0.00931865
0.01238884 -0.00809900 0.00658773
0.01329945 -0.00614700 -0.00744065
0.00952427 -0.00340564 0.01477910
0.01346161 -0.00649332 0.00308244
0.01283549 -0.00795995 0.00447468
0.01110499 0.01208426 -0.00743958
0.01087878 -0.00723827 0.01011500
0.01457304 -0.00492879 -0.00723551
0.01153375 -0.01016910 -0.00408402
0.01065474 -0.01152359 0.00607299
0.01684171 0.00497858 0.00121975
0.01612140 -0.00055417 -0.00386765
0.01547443 0.00650006 -0.00215526
0.01325804 -0.00522834 -0.00904537
0.01649488 0.00334094 0.00046528
0.01177411 -0.00798688 0.00831157
0.01651679 0.00631017 0.00230631
0.01289689 0.00721738 -0.01124510
0.00961451 -0.00758957 0.01179960
0.00845100 -0.00715342 0.01356490
0.00685901 -0.00641515 0.01461030
0.01446262 -0.00373283 -0.00141410
0.01689330 0.00179955 -0.00293613
0.00986833 -0.01092237 0.00822493
0.00709509 -0.00867495 0.01249400
0.01237107 0.01037453 -0.00726798
0.01431601 0.00658229 0.00854763
0.01060540 -0.00563865 0.01217990
0.01483232 0.00990349 0.00343331
0.01189661 -0.00408787 0.01172030
0.01269380 0.00924005 -0.01036470
0.01403133 -0.00324018 -0.00915363
0.01525678 -0.00398492 -0.00532954
0.01478418 -0.00318776 0.00668042
0.01497897 0.00135615 0.00878379
0.01444486 -0.00073478 0.00942604
0.01409537 -0.00255244 0.00891403
0.01633959 0.00182988 0.00653621
0.01285667 0.00210561 -0.01231890
0.01366514 0.00753400 -0.00912202
0.01663137 0.00548761 0.00447332
0.01642954 0.00330553 -0.00453900
0.01127913 0.01078486 -0.01120280
0.01304836 -0.00657451 0.00679391
0.01400178 -0.00411323 0.00812019
0.01147594 0.01083930 -0.00909273
0.01598660 -0.00075778 -0.00623598
0.01493186 -0.00377512 0.00036359
0.01662567 0.00118355 -0.00501797
0.01258672 -0.00204487 0.01179820
0.01143006 -0.00273381 -0.01241540
0.01245282 0.01096314 0.00021388
0.01675929 0.00231292 -0.00105898
0.01112471 0.01248688 0.00097570
0.01525735 0.00778281 0.00362096
0.00899800 0.01199397 -0.00163228
0.01072789 0.01098618 -0.00313809
0.01106009 0.01080074 -0.00523811
0.01613184 -0.00161694 -0.00219511
0.01596730 -0.00233850 -0.00478615
0.01522944 -0.00357481 -0.00320324
0.01120828 -0.01014348 0.00374578
0.01434857 -0.00502010 0.00494659
0.01236544 -0.00852320 0.00165709
0.01242989 0.00382395 -0.01327950
0.01252729 0.00142604 0.01280800
0.01332271 0.00862113 0.00886901
0.01311100 0.00920394 0.00634984
0.01544520 -0.00254448 0.00509254
0.01583491 -0.00050329 0.00583018
0.01371020 -0.00643816 -0.00115054
0.01475637 0.01014341 0.00562070
0.00885501 0.01375713 0.00596330
0.01251502 0.01072970 0.00703615
0.01168177 0.01245539 0.00514419
0.01424770 -0.00560905 0.00132875
0.01349833 0.01102541 0.00457638
0.01401170 -0.00050895 -0.01060360
0.01032503 0.01236253 0.00710099
0.01205728 -0.00057018 0.01300040
0.01006752 0.01385904 0.00373446
0.01002015 0.01388889 0.00161372
0.01331960 -0.00640401 0.00490496
0.01121960 0.01320180 0.00261498
0.01274203 0.01197407 0.00272521
0.01509413 -0.00071716 -0.00890568
0.01318176 -0.00695355 0.00059976
0.01149973 -0.00899101 -0.00079740
0.01131849 -0.00990180 0.00083444
0.01347835 0.00478031 -0.01148190
0.01111824 -0.00926083 0.00641175
0.01056296 -0.00934108 0.00836337
0.01568200 -0.00200541 0.00281936
0.01571172 -0.00220228 0.00106585
0.01520256 0.00836147 0.00081055
0.01389122 0.01038803 0.00109789
0.01625108 -0.00062601 0.00358216
0.01470859 -0.00125842 0.00739709
0.01190344 0.01053095 -0.00152837
0.01310009 0.00908559 -0.00473267
-0.00470438 -0.00084609 -0.01618980
-0.01130768 -0.00012523 -0.01308910
0.00629967 0.01586078 0.00014035
0.00449953 0.01514861 0.00055930
0.00624078 0.01586371 0.00202673
0.00433746 0.01564693 0.00223150
0.00740700 0.01505941 0.00344551
0.00694641 0.01291823 -0.00048767
0.00803022 0.01410430 0.00074027
0.00928555 0.01298096 0.00039176
0.00518085 0.01341445 0.00018995
0.00076518 0.01505512 -0.00665495
0.00027653 0.01481578 -0.00941145
0.00288771 0.01470299 -0.00956673
0.00155163 0.01490256 -0.00814462
0.00320734 0.01522677 -0.00774469
0.00157526 0.01456778 -0.01058000
0.00011395 0.01443243 -0.00415929
0.00229170 0.01435180 -0.00295434
0.00286621 0.01529925 -0.00161347
0.00453911 0.01549691 -0.00151544
0.00773015 0.01449794 -0.00668216
0.00503276 0.01480649 -0.00398935
0.00528069 0.01471580 -0.00698555
0.00838980 0.01254833 -0.00322476
0.00646247 0.01324979 -0.00246705
0.00882321 0.01305659 -0.00487697
0.00653736 0.01462028 -0.00812076
0.00685570 0.01436675 -0.00454429
0.00508090 0.01488030 -0.00926072
0.00327498 0.01546361 -0.00580818
0.00434623 0.01370811 -0.00185409
0.00960061 0.01342391 -0.00777694
-0.01573894 -0.00008205 -0.00588227
-0.01547584 -0.00175734 -0.00522106
-0.01672445 -0.00144491 -0.00089786
-0.01494570 -0.00363385 -0.00682505
-0.01496307 -0.00512226 -0.00532122
-0.01648925 -0.00060323 -0.00431341
-0.01569531 -0.00343803 -0.00437853
-0.01600623 -0.00279430 -0.00246863
-0.01389140 -0.00756351 -0.00221299
-0.01437793 -0.00199150 -0.00800670
-0.01409534 -0.00677232 -0.00384360
-0.01511249 -0.00564326 -0.00309226
-0.01356417 -0.00760518 -0.00530851
-0.01676354 -0.00014033 -0.00254284
-0.01245656 -0.00938763 -0.00216445
-0.01636481 -0.00325856 -0.00056376
0.00173518 0.01155069 0.00047834
0.00246370 0.01337114 -0.00091154
0.00119646 0.01201443 -0.00139943
0.00320096 0.01378507 0.00116805
-0.01452451 -0.00676155 0.00160281
-0.01606200 -0.00142181 0.00400626
-0.01242351 -0.00545471 0.00769033
-0.01369715 -0.00219985 0.00794696
-0.01520127 -0.00265037 0.00559391
-0.01348756 -0.00572065 0.00611016
-0.01496056 -0.00450130 0.00461188
-0.01651197 -0.00270440 0.00142732
-0.01246238 -0.00417661 0.00911140
-0.01689932 -0.00018813 0.00199113
-0.01228393 -0.00711912 0.00585958
-0.01552365 -0.00443835 0.00240228
-0.01585152 -0.00317074 0.00367267
-0.01546106 -0.00489603 -0.00054213
-0.01471690 -0.00120036 0.00668051
-0.01308678 -0.00782508 0.00382716
-0.01367152 -0.00059222 0.00860467
-0.01370542 -0.00386945 0.00692072
-0.01199764 -0.00995522 0.00248034
-0.01070788 -0.00821591 0.00708672
-0.01145392 -0.00959370 0.00405744
-0.01326781 -0.00862807 0.00012653
-0.01318142 -0.00827754 0.00218292
-0.01456680 -0.00676557 -0.00053472
-0.01418457 -0.00616107 0.00416151
0.00058312 0.01506019 -0.00116461
-0.00125095 -0.00850817 0.01404180
-0.00700587 -0.00430069 0.01380140
-0.00611241 -0.00274050 0.01536290
-0.01146520 -0.00175230 0.01137350
-0.00952014 -0.00866013 0.00827284
-0.00250753 -0.00614267 0.01520880
-0.00156139 -0.00503379 0.01619100
-0.01099197 -0.00331248 0.01106310
-0.01105807 -0.00653314 0.00860278
-0.00407968 -0.00613904 0.01456310
-0.00355799 -0.01015647 0.01222010
-0.00938976 -0.00140468 0.01315610
-0.00841301 -0.00028954 0.01429030
-0.00116488 -0.00307537 0.01707570
0.00237659 -0.00701778 0.01529400
-0.00113055 -0.00114728 0.01793720
-0.00819634 -0.00505200 0.01231160
-0.00321020 -0.00767296 0.01389380
-0.00388633 -0.01147242 0.01111980
-0.00680508 -0.00914228 0.01078300
-0.00448622 -0.00275573 0.01623120
-0.00548820 -0.01101602 0.01048340
-0.00479979 -0.00460044 0.01487180
-0.01260416 -0.00153262 0.01009780
-0.00812097 -0.00994770 0.00913221
-0.01084536 -0.00022231 0.01215480
-0.00978054 -0.00586616 0.01052670
-0.00406129 -0.00064706 0.01674200
-0.00655294 -0.00059449 0.01554790
-0.00856944 -0.00794436 0.00998022
-0.00890522 -0.00336006 0.01269310
-0.00770700 -0.00249464 0.01400140
-0.00572673 -0.00640461 0.01343760
-0.00268798 -0.00185880 0.01722960
0.00105841 -0.00902730 0.01453710
0.00180701 -0.01095166 0.01337450
-0.00172084 -0.01142591 0.01223750
-0.00543875 -0.00858459 0.01234710
0.00324941 -0.00941477 0.01383130
-0.00300550 -0.00371402 0.01625520
-0.00070998 -0.01003519 0.01358830
-0.00783673 -0.00672628 0.01175310
-0.00071268 -0.00729831 0.01513530
0.00818069 0.01175094 0.01130400
0.00928179 0.01163982 0.00882090
0.00944899 0.01064554 0.01275610
0.01053772 0.01033599 0.00868542
0.00759700 0.01148579 0.01314490
0.01162261 0.00920750 0.01084900
0.00994056 0.01120052 0.01069130
0.00653084 0.01307154 0.01180930
0.00442430 0.01249111 0.01334820
0.00122541 0.01356905 0.01132540
0.00349881 0.01319708 0.01126680
0.00490913 0.01512446 0.01225910
0.00168131 0.01279997 0.01390020
0.00288788 0.01582467 0.00826887
0.00527161 0.01494096 0.00942856
0.00434858 0.01545003 0.00738101
0.00544339 0.01540657 0.00475047
0.00360153 0.01586642 0.00409931
0.00765408 0.01252494 0.00889636
0.00676161 0.01451396 0.00694414
0.00737002 0.01499693 0.01095440
0.00865888 0.01267573 0.00737186
0.00828341 0.01475199 0.00868863
0.00650470 -0.01923697 -0.00359210
0.00675367 -0.01316983 -0.01036210
0.00728866 -0.01812733 0.00018765
0.00203638 -0.02030457 -0.00929334
-0.00012175 -0.02020947 -0.00916171
0.00971588 -0.01330902 -0.00471021
0.00558841 -0.02100765 -0.00399113
0.00525774 -0.01421465 -0.01104550
0.01071641 -0.00959091 -0.00845216
0.00777856 -0.01699497 -0.00435476
0.00856786 -0.01651151 -0.00066674
0.00907055 -0.01314418 -0.00668119
0.00742211 -0.01767694 -0.00236641
0.00321853 -0.02414838 -0.00451956
0.00862549 -0.01488533 -0.00456078
0.01045455 -0.01162954 -0.00450137
0.00679897 -0.01944763 -0.00176710
0.00736784 -0.01348521 -0.00876690
0.00263566 -0.02329039 -0.00672087
0.00817913 -0.01536757 -0.00636127
0.00949199 -0.01173887 -0.00832232
0.00995325 -0.01388652 -0.00177201
0.00865007 -0.01581660 -0.00282677
0.00810535 -0.00918063 -0.01214090
0.00456658 -0.02223953 -0.00519033
0.00667652 -0.01742728 -0.00606742
0.01080460 -0.01063623 -0.00630018
0.00626326 -0.01171870 -0.01164160
0.00247007 -0.01540331 -0.01144820
-0.00169297 -0.02252232 -0.00703538
0.00840245 -0.01097454 -0.01042270
0.00123134 -0.01851195 -0.01003340
0.00306115 -0.01374570 -0.01218030
0.00307346 -0.01863256 -0.00996196
0.00561399 -0.01974845 -0.00626399
0.00610838 -0.01493260 -0.00915634
0.00579346 -0.01653020 -0.00843951
0.00473052 -0.01581070 -0.01008790
0.00319304 -0.01676578 -0.01069720
0.00380162 -0.01946553 -0.00858675
0.00995144 -0.00897085 -0.01005380
0.00065913 -0.02478169 -0.00529875
0.00232548 -0.02210087 -0.00799108
0.00477964 -0.01147307 -0.01311430
0.00587831 -0.00959058 -0.01331450
0.00577537 -0.01818566 -0.00767542
0.00046784 -0.02175593 -0.00828772
0.00431262 -0.01763023 -0.00931326
0.00378264 -0.02130410 -0.00741993
-0.00167043 -0.02373395 -0.00546440
-0.00009422 -0.02328140 -0.00695593
0.00047374 -0.01535494 0.01096200
-0.00154006 -0.01971180 0.00786109
0.00173048 -0.01400390 0.01173410
-0.00447894 -0.01772330 0.00622195
-0.01068271 -0.01148473 0.00113862
-0.01022354 -0.01262962 -0.00082295
-0.00489269 -0.01915453 0.00451123
-0.01168407 -0.01081400 -0.00064253
-0.00705297 -0.01264748 0.00718221
-0.00345922 -0.02271476 0.00367207
-0.00785541 -0.01307043 0.00560325
-0.00523517 -0.02111459 0.00138987
-0.00598791 -0.01705314 0.00439000
-0.00417864 -0.02335436 -0.00080413
-0.00921606 -0.01009723 0.00693937
-0.00340709 -0.01965850 0.00614443
-0.00202724 -0.01643890 0.00901614
-0.00928843 -0.01153759 0.00537835
-0.01019466 -0.01135986 0.00330192
-0.00645859 -0.01448722 0.00637328
-0.00818533 -0.01494210 0.00082855
-0.00147087 -0.02184739 0.00621834
-0.00440741 -0.01537902 0.00775172
-0.00738796 -0.01685125 -0.00043233
-0.00871368 -0.01324657 0.00338967
-0.00344119 -0.01457774 0.00927614
-0.00970014 -0.01311849 0.00121362
-0.00341878 -0.02111119 0.00490700
-0.00613805 -0.01893896 -0.00000900
-0.00697112 -0.01652626 0.00198337
-0.00586980 -0.01887313 0.00261881
-0.00394153 -0.02325371 0.00172753
0.00023182 -0.01271300 0.01224700
-0.00804017 -0.01135892 0.00777642
-0.00722733 -0.01510575 0.00384967
-0.01069828 -0.00928461 0.00556680
-0.00302388 -0.01296390 0.01066300
-0.00456610 -0.02128798 0.00335990
-0.00275268 -0.01806893 0.00757780
-0.00536538 -0.01587869 0.00604347
-0.00045559 -0.01778924 0.00929273
-0.00021936 -0.02108049 0.00785832
-0.00131723 -0.01417867 0.01073740
-0.00004408 -0.01951287 0.00879767
-0.00571050 -0.01308784 0.00855174
-0.00295822 -0.02483915 0.00063926
-0.00550562 -0.02123768 -0.00151209
-0.00644898 -0.01859751 -0.00242194
-0.00362255 -0.02354095 -0.00317668
-0.00916476 -0.01305661 -0.00440410
-0.00911652 -0.01427758 -0.00125899
-0.01114964 -0.01131413 -0.00277803
-0.00689941 -0.01706333 -0.00312022
-0.01189280 -0.00987779 -0.00416205
-0.00469195 -0.01332633 -0.00986243
-0.00473619 -0.01868717 -0.00626808
-0.00814231 -0.01563244 -0.00137594
-0.00628640 -0.01355222 -0.00834086
-0.00291764 -0.01483397 -0.01023510
-0.00455451 -0.01508389 -0.00893295
-0.00688516 -0.01579147 -0.00484590
-0.00968259 -0.01288037 -0.00281936
-0.00806069 -0.01411808 -0.00552766
-0.00958257 -0.01132609 -0.00668465
-0.00791011 -0.01554953 -0.00307824
-0.00153302 -0.01844859 -0.00968504
-0.00175358 -0.02119004 -0.00811090
-0.01020069 -0.01145955 -0.00453211
-0.00503878 -0.02009591 -0.00427630
-0.00680327 -0.01405107 -0.00675642
-0.00316270 -0.02151900 -0.00607699
-0.00643575 -0.01567049 -0.00658497
-0.00823624 -0.01269189 -0.00701125
-0.00337286 -0.01961228 -0.00795474
-0.00554188 -0.01116846 -0.01058700
-0.00629522 -0.01737926 -0.00486085
-0.00451057 -0.01703156 -0.00793463
-0.00306628 -0.01690763 -0.00951050
-0.00431931 -0.02192728 -0.00408254
0.00535708 -0.02155115 -0.00168454
0.00637968 -0.02028054 -0.00017778
0.00394312 -0.02369976 0.00186228
0.00481261 -0.02295692 -0.00014637
0.00449302 -0.02302239 -0.00276105
0.00385572 -0.02275877 0.00505769
0.00624094 -0.02032373 0.00487304
0.00711370 -0.01903473 0.00288847
0.00514984 -0.02201441 0.00380648
0.00355007 -0.02362009 0.00360308
0.00764546 -0.01729424 0.00459728
0.00461548 -0.02130616 0.00621348
0.00787616 -0.01701627 0.00217713
0.00586263 -0.02136741 0.00195702
0.00645299 -0.01849395 0.00666828
-0.00263488 -0.02466063 -0.00221855
0.00132512 -0.02528721 0.00322173
0.00288506 -0.02490444 0.00050462
0.00124901 -0.02583467 0.00066594
-0.00162528 -0.02530284 0.00195601
-0.00027629 -0.02584875 -0.00219067
0.00202716 -0.02545184 -0.00080442
-0.00119993 -0.02530080 -0.00347817
0.00351357 -0.02429089 -0.00132684
0.00145367 -0.02568701 -0.00271663
-0.00176928 -0.02555550 -0.00081991
0.00277113 -0.02474001 0.00249766
0.00362956 -0.01508020 0.01114700
0.00716188 -0.01106539 0.01173520
0.00735635 -0.01445261 0.00900447
0.00910763 -0.01452985 0.00071389
0.00859109 -0.01357438 0.00790265
0.00334965 -0.01218823 0.01248260
0.00831979 -0.01195584 0.01000570
0.00492888 -0.01285879 0.01169240
0.01007160 -0.01354435 0.00235974
0.00629942 -0.01373715 0.01063150
0.00625776 -0.01653649 0.00874427
0.00856595 -0.01534557 0.00601523
0.00533493 -0.01528021 0.01016770
0.00517702 -0.01041961 0.01293960
0.00911597 -0.01356914 0.00613104
0.00824149 -0.01000572 0.01079790
0.01027324 -0.01259482 -0.00038604
0.00901451 -0.01524310 0.00339706
0.00982415 -0.01235713 0.00726613
0.01075458 -0.01158929 -0.00209723
0.00742008 -0.01670216 0.00708400
0.01056374 -0.01156170 0.00120341
0.01006066 -0.01275704 0.00423155
0.00126758 0.00877824 0.01690270
0.00069030 0.00571020 0.01805920
0.00188729 0.00709282 0.01765550
0.00559705 0.00304534 0.01771990
0.00476251 -0.00523297 0.01551060
0.00857082 0.00403668 0.01639820
0.00510844 -0.00177911 0.01670120
0.00112931 0.00113692 0.01838750
0.00264836 -0.00432888 0.01652120
0.00647882 -0.00312731 0.01567380
0.00312494 0.00531277 0.01805120
0.00312346 0.00971002 0.01668670
0.00552525 -0.00787746 0.01431330
0.01226973 0.00336298 0.01266940
0.00201266 -0.00054968 0.01806340
0.00241408 -0.00225372 0.01757600
0.00747523 0.00280325 0.01702660
0.00676146 -0.00069442 0.01679180
0.00066226 -0.00153806 0.01813200
0.00573457 0.00504051 0.01722200
0.00362639 0.00030695 0.01785410
0.00890243 0.00128229 0.01610970
0.00821382 0.00647022 0.01604760
0.00789339 -0.00183347 0.01607730
0.00375204 0.00257937 0.01802730
0.00363518 -0.00788485 0.01457990
0.00389433 0.00758333 0.01731030
0.00654305 0.00138565 0.01706200
0.00445216 -0.00337098 0.01657490
0.00765676 -0.00467289 0.01494770
0.00069804 -0.00314378 0.01737690
0.00638171 0.00785802 0.01670960
0.00326282 0.01110033 0.01487890
0.00032073 -0.00463278 0.01675060
0.00531613 0.01140060 0.01454400
0.00163650 0.01120887 0.01603720
0.00698801 0.01043261 0.01470950
0.00499444 0.00994634 0.01552750
0.01095680 0.00115118 0.01449400
0.01114151 0.00511270 0.01399150
0.01041214 0.00881228 0.01291840
0.00818553 0.00886901 0.01505710
0.01001946 0.00630795 0.01481000
0.01076287 0.00384910 0.01507840
0.01071860 0.00719239 0.01347610
0.00133643 0.00351328 0.01849930
0.00001875 -0.02385507 0.00540696
-0.00156003 -0.02417639 0.00424340
0.00057953 -0.02263707 0.00687370
0.00199795 -0.02377354 0.00526190
0.00271751 -0.02231476 0.00677876
0.00186941 -0.02089682 0.00856318
-0.00382037 -0.01248985 -0.01144760
-0.00032737 -0.01683066 -0.01091200
0.00972090 -0.00697965 -0.01182190
0.00048604 -0.01509841 -0.01189880
0.00811362 -0.00754596 -0.01296660
0.00039543 -0.01259696 -0.01294610
0.00254752 -0.01140591 -0.01359570
-0.00158589 -0.01336945 -0.01161710
0.00313569 -0.00937895 -0.01440800
-0.00230845 -0.01143815 -0.01295420
-0.00144806 -0.01537346 -0.01089950
-0.00407832 -0.01035867 -0.01272840
0.00000644 -0.01044239 -0.01362260
0.00146038 -0.01858525 0.00984833
0.00534298 -0.01823241 0.00834792
0.00332027 -0.01934821 0.00909252
0.00449445 -0.02011392 0.00781065
0.00391479 -0.01772080 0.00958934
0.00227100 -0.01687307 0.01043510
0.00036885 0.01209084 0.00298374
0.00187088 0.01498817 0.00302210
-0.00754279 0.01448898 0.00960639
-0.00637625 0.01404798 0.01076740
-0.00543885 0.01428671 0.01210820
-0.00735065 0.00816359 0.01650940
-0.00509974 0.00737587 0.01736210
-0.00075263 0.00811571 0.01755130
-0.00680551 0.00973067 0.01632610
-0.00796451 0.00130447 0.01663690
-0.00629580 0.00400263 0.01760430
-0.00974949 0.00250246 0.01547490
-0.01099251 0.00344488 0.01443420
-0.00975146 0.00519312 0.01556330
-0.00832398 0.00368897 0.01659700
-0.00910809 0.00039020 0.01570260
-0.00147316 0.00286960 0.01778100
-0.00758516 0.00555051 0.01698360
-0.00315632 0.00225629 0.01765430
-0.00876848 0.00852117 0.01550940
-0.00151859 0.01084654 0.01644670
-0.00791399 0.01020241 0.01507110
-0.00967947 0.00931014 0.01385500
-0.00130564 0.00111408 0.01750220
-0.00571284 0.00182203 0.01750470
-0.00311838 0.00672939 0.01780720
-0.00466244 0.01009478 0.01619060
-0.00332671 0.00472297 0.01795190
-0.00022928 0.01251391 0.01540250
-0.00140887 0.00578905 0.01819500
-0.00854331 0.00678091 0.01588430
-0.01136133 0.00168711 0.01366920
-0.00213901 0.01296477 0.01466210
-0.00297758 0.00900219 0.01742830
-0.00014086 0.00402838 0.01818050
-0.01032252 0.00757213 0.01476990
-0.00777655 0.01195152 0.01399590
-0.00402552 0.01209605 0.01538340
-0.00622061 0.01112422 0.01541680
-0.00762706 0.01328555 0.01251920
-0.00578653 0.01225289 0.01419480
-0.00399015 0.01337300 0.01342570
-0.00211612 0.01445768 0.01220330
-0.00376934 0.01435688 0.01186960
-0.00034889 0.01357424 0.01362970
-0.01394224 0.00894879 0.00754590
-0.01473195 0.00819459 -0.00647537
-0.01523025 0.00454451 0.00809541
-0.01619989 0.00355539 0.00712320
-0.01486547 0.00374134 0.00998228
-0.01547793 0.00689557 -0.00546409
-0.01293325 0.00939585 0.00288691
-0.01462751 0.00860799 0.00230613
-0.01416930 0.00961224 0.00058197
-0.01487872 0.00750940 0.00612742
-0.01453294 0.00627447 0.00810591
-0.01483064 0.00786864 0.00433666
-0.01499066 0.00783817 0.00087149
-0.01235451 0.00641179 -0.01285480
-0.01573645 0.00094813 0.00731462
-0.00957869 0.01169941 0.01234400
-0.01598152 0.00085061 0.00065171
-0.01641614 0.00156362 -0.00455943
-0.01605247 0.00052185 0.00228327
-0.01672739 0.00102880 -0.00158984
-0.01637400 0.00380741 -0.00531975
-0.01417327 0.00116180 0.01091210
-0.01330936 0.00513084 -0.01176720
-0.01642132 0.00389566 0.00216824
-0.01321688 0.00660410 -0.01049860
-0.01199829 0.00797575 -0.01229210
-0.01601446 0.00613997 -0.00002599
-0.01632852 0.00521746 0.00336340
-0.01576083 0.00528697 -0.00694871
-0.01491320 0.00492205 -0.00892946
-0.01366289 0.00246008 -0.01113440
-0.01532743 0.00333114 -0.00806905
-0.00936705 0.01280558 0.01009500
-0.01421656 0.00418030 -0.01039880
-0.01420577 0.00609095 0.01011910
-0.01356355 0.00038863 -0.01102720
-0.01077321 0.01179535 0.00078394
-0.01559450 0.00603895 0.00466281
-0.01659281 0.00336962 -0.00301621
-0.01541195 0.00552438 0.00651012
-0.01173191 0.00649342 0.01343720
-0.01103743 0.00920403 0.01245310
-0.01517334 0.00148622 0.00931865
-0.01110499 0.01208426 0.00743958
-0.01684171 0.00497858 -0.00121975
-0.01547443 0.00650006 0.00215526
-0.01649488 0.00334094 -0.00046528
-0.01651679 0.00631017 -0.00230631
-0.01289689 0.00721738 0.01124510
-0.01689330 0.00179955 0.00293613
-0.01237107 0.01037453 0.00726798
-0.01431601 0.00658229 -0.00854763
-0.01483232 0.00990349 -0.00343331
-0.01269380 0.00924005 0.01036470
-0.01497897 0.00135615 -0.00878379
-0.01633959 0.00182988 -0.00653621
-0.01285667 0.00210561 0.01231890
-0.01366514 0.00753400 0.00912202
-0.01663137 0.00548761 -0.00447332
-0.01642954 0.00330553 0.00453900
-0.01127913 0.01078486 0.01120280
-0.01147594 0.01083930 0.00909273
-0.01662567 0.00118355 0.00501797
-0.01245282 0.01096314 -0.00021388
-0.01675929 0.00231292 0.00105898
-0.01112471 0.01248688 -0.00097570
-0.01525735 0.00778281 -0.00362096
-0.00899800 0.01199397 0.00163228
-0.01072789 0.01098618 0.00313809
-0.01106009 0.01080074 0.00523811
-0.01242989 0.00382395 0.01327950
-0.01252729 0.00142604 -0.01280800
-0.01332271 0.00862113 -0.00886901
-0.01311100 0.00920394 -0.00634984
-0.01475637 0.01014341 -0.00562070
-0.00885501 0.01375713 -0.00596330
-0.01251502 0.01072970 -0.00703615
-0.01168177 0.01245539 -0.00514419
-0.01349833 0.01102541 -0.00457638
-0.01032503 0.01236253 -0.00710099
-0.01006752 0.01385904 -0.00373446
-0.01002015 0.01388889 -0.00161372
-0.01121960 0.01320180 -0.00261498
-0.01274203 0.01197407 -0.00272521
-0.01347835 0.00478031 0.01148190
-0.01520256 0.00836147 -0.00081055
-0.01389122 0.01038803 -0.00109789
-0.01190344 0.01053095 0.00152837
-0.01310009 0.00908559 0.00473267
-0.00629967 0.01586078 -0.00014035
-0.00449953 0.01514861 -0.00055930
-0.00624078 0.01586371 -0.00202673
-0.00433746 0.01564693 -0.00223150
-0.00740700 0.01505941 -0.00344551
-0.00694641 0.01291823 0.00048767
-0.00803022 0.01410430 -0.00074027
-0.00928555 0.01298096 -0.00039176
-0.00518085 0.01341445 -0.00018995
-0.00076518 0.01505512 0.00665495
-0.00027653 0.01481578 0.00941145
-0.00288771 0.01470299 0.00956673
-0.00155163 0.01490256 0.00814462
-0.00320734 0.01522677 0.00774469
-0.00157526 0.01456778 0.01058000
-0.00011395 0.01443243 0.00415929
-0.00229170 0.01435180 0.00295434
-0.00286621 0.01529925 0.00161347
-0.00453911 0.01549691 0.00151544
-0.00773015 0.01449794 0.00668216
-0.00503276 0.01480649 0.00398935
-0.00528069 0.01471580 0.00698555
-0.00838980 0.01254833 0.00322476
-0.00646247 0.01324979 0.00246705
-0.00882321 0.01305659 0.00487697
-0.00653736 0.01462028 0.00812076
-0.00685570 0.01436675 0.00454429
-0.00508090 0.01488030 0.00926072
-0.00327498 0.01546361 0.00580818
-0.00434623 0.01370811 0.00185409
-0.00960061 0.01342391 0.00777694
-0.00173518 0.01155069 -0.00047834
-0.00246370 0.01337114 0.00091154
-0.00119646 0.01201443 0.00139943
-0.00320096 0.01378507 -0.00116805
-0.00058312 0.01506019 0.00116461
-0.00818069 0.01175094 -0.01130400
-0.00928179 0.01163982 -0.00882090
-0.00944899 0.01064554 -0.01275610
-0.01053772 0.01033599 -0.00868542
-0.00759700 0.01148579 -0.01314490
-0.01162261 0.00920750 -0.01084900
-0.00994056 0.01120052 -0.01069130
-0.00653084 0.01307154 -0.01180930
-0.00442430 0.01249111 -0.01334820
-0.00122541 0.01356905 -0.01132540
-0.00349881 0.01319708 -0.01126680
-0.00490913 0.01512446 -0.01225910
-0.00168131 0.01279997 -0.01390020
-0.00288788 0.01582467 -0.00826887
-0.00527161 0.01494096 -0.00942856
-0.00434858 0.01545003 -0.00738101
-0.00544339 0.01540657 -0.00475047
-0.00360153 0.01586642 -0.00409931
-0.00765408 0.01252494 -0.00889636
-0.00676161 0.01451396 -0.00694414
-0.00737002 0.01499693 -0.01095440
-0.00865888 0.01267573 -0.00737186
-0.00828341 0.01475199 -0.00868863
-0.00126758 0.00877824 -0.01690270
-0.00069030 0.00571020 -0.01805920
-0.00188729 0.00709282 -0.01765550
-0.00559705 0.00304534 -0.01771990
-0.00857082 0.00403668 -0.01639820
-0.00112931 0.00113692 -0.01838750
-0.00312494 0.00531277 -0.01805120
-0.00312346 0.00971002 -0.01668670
-0.01226973 0.00336298 -0.01266940
-0.00747523 0.00280325 -0.01702660
-0.00573457 0.00504051 -0.01722200
-0.00362639 0.00030695 -0.01785410
-0.00890243 0.00128229 -0.01610970
-0.00821382 0.00647022 -0.01604760
-0.00375204 0.00257937 -0.01802730
-0.00389433 0.00758333 -0.01731030
-0.00654305 0.00138565 -0.01706200
-0.00638171 0.00785802 -0.01670960
-0.00326282 0.01110033 -0.01487890
-0.00531613 0.01140060 -0.01454400
-0.00163650 0.01120887 -0.01603720
-0.00698801 0.01043261 -0.01470950
-0.00499444 0.00994634 -0.01552750
-0.01095680 0.00115118 -0.01449400
-0.01114151 0.00511270 -0.01399150
-0.01041214 0.00881228 -0.01291840
-0.00818553 0.00886901 -0.01505710
-0.01001946 0.00630795 -0.01481000
-0.01076287 0.00384910 -0.01507840
-0.01071860 0.00719239 -0.01347610
-0.00133643 0.00351328 -0.01849930
-0.00036885 0.01209084 -0.00298374
-0.00187088 0.01498817 -0.00302210
